1.912901179648617556e-01 9.802563751788504476e-01 -5.005526635839717409e-02
2.115691748575859454e-01 9.749932656012858523e-01 -6.801923464888978699e-02
2.639603762279703614e-01 9.630253240354248456e-01 -5.391794736498585483e-02
3.154784008528419004e-01 9.485911302651024446e-01 -2.546067905043582213e-02
3.745851103573747398e-01 9.270351268233043562e-01 -1.708416618549450303e-02
-5.513870732122448659e-02 9.980680184265767751e-01 2.863483104526285891e-02
4.514565552623720337e-04 9.997586726213693042e-01 2.196344019812278628e-02
2.570292200505100433e-03 9.998093395022032981e-01 1.935660719682369413e-02
5.150080005368343379e-03 9.998523605318900831e-01 1.639310265769085284e-02
2.670679839740777370e-03 9.998999755750945795e-01 1.388907175152007990e-02
2.591577820974772395e-03 9.998971398304674629e-01 1.410650499764131219e-02
3.738845788352977706e-03 9.999057068184682429e-01 1.321357272013787450e-02
-1.623435120672730818e-03 9.997489600003233168e-01 2.234684399822151751e-02
-7.489693692915537840e-03 9.995849979792102991e-01 2.781611589148364969e-02
-1.642605048854224245e-02 9.990569007466049145e-01 4.019320758456836062e-02
-1.880071647156970199e-02 9.989323585303012676e-01 4.219805850089931171e-02
-2.151983378870347269e-02 9.988332689205019488e-01 4.323190547837334197e-02
-2.182437353988816997e-02 7.381853789827990120e-01 6.742447945483989180e-01
-1.585751127408285555e-01 8.304713736152037340e-01 5.340142612561110669e-01
-1.179619433608809498e-01 9.916058026026978167e-01 5.294253642567522261e-02
-1.598720443933110413e-02 9.996405865057792495e-01 2.151992343380304193e-02
-7.502100632496015893e-03 9.997057865237681806e-01 2.306640147474098984e-02
-5.273622640271305104e-03 9.997718015344562170e-01 2.070105699707453645e-02
-5.001441114829422580e-03 9.998217069793845502e-01 1.820823548849645132e-02
-7.561586591467336395e-03 9.998188213980558903e-01 1.746845117410477516e-02
-1.384932152460879862e-02 9.997741273444133991e-01 1.612112235623763823e-02
-1.368616200900477043e-03 9.998621258331229500e-01 1.654860157725610709e-02
2.096531821957409447e-01 9.777726953898450146e-01 -2.469685258655802181e-03
2.405426810939794435e-01 9.704884360206110783e-01 -1.707085593601842186e-02
-1.672708872860253215e-01 8.412567095548845186e-01 5.141085477751117239e-01
1.225500333351103692e-02 9.997646942375213452e-01 1.789891196277447472e-02
-2.745103543990298212e-01 9.615359771375114883e-01 9.624447928586991538e-03
5.540972586794936337e-03 9.998693642173476226e-01 1.518394291314354057e-02
1.264276826856432501e-01 9.910532217575327429e-01 -4.277327079792295900e-02
2.974749236359068294e-01 9.530773141163164652e-01 -5.614537491761520394e-02
-2.080085593852766257e-01 9.780495668822898336e-01 1.230788137036551572e-02
-5.836012022661425658e-02 9.978566297770604665e-01 2.960139822882631305e-02
-2.832041531643991836e-03 9.997987127717382627e-01 1.986236342277368158e-02
1.558498097727109783e-03 9.997666992027430810e-01 2.154340383809506126e-02
9.459393944311058570e-04 9.997951357980350284e-01 2.021859622354604466e-02
1.606796141198382592e-03 9.998145425887335902e-01 1.919110820776050511e-02
2.974855505927065640e-03 9.998837552640408299e-01 1.495413634412388199e-02
3.304511567068023608e-03 9.998920107026193493e-01 1.431946704231387875e-02
2.960268187784268878e-03 9.998807303534069657e-01 1.515789827759560920e-02
7.441203565309137576e-03 9.998526573147131780e-01 1.546907076091938622e-02
-2.328113855068728207e-03 9.997097746154958164e-01 2.397804045606142381e-02
-1.036757820848485494e-02 9.994987923868761115e-01 2.991115743777186808e-02
-1.918488698360928599e-02 9.990954512027159229e-01 3.795022394489575707e-02
-2.264885836683573975e-02 9.989481295743253275e-01 3.987058608342616134e-02
5.298695690605584319e-02 4.098081641959825938e-01 9.106314572625713311e-01
5.152388692900283784e-02 6.057087767275194379e-01 7.940164777074709690e-01
-2.690164626399529912e-01 9.603405618307778724e-01 7.332222126499370052e-02
-3.300424854046684064e-01 9.393804853257196052e-01 9.293148883518786985e-02
-1.591432666927438538e-02 9.995976658592593544e-01 2.347851390919242567e-02
-1.704228202633499209e-02 9.996283058647619235e-01 2.127935002016615243e-02
-9.285659267693792407e-03 9.996985908840089197e-01 2.272672251978051852e-02
-7.773041927627123183e-03 9.997973547319074505e-01 1.856957970099646846e-02
-8.388479960830759474e-03 9.998558881527889186e-01 1.475927945885457081e-02
-1.514475173519457332e-02 9.997573482617266860e-01 1.599628367965064829e-02
-1.358531026267812726e-02 9.998243833028981342e-01 1.290898516716882174e-02
1.022514550692918975e-03 9.998714876118744987e-01 1.599883510793448371e-02
1.084270243428798672e-02 9.997413568454019961e-01 1.999137856266694144e-02
-1.245976098159239792e-01 9.696586752780680385e-01 2.103271002180671645e-01
1.275025313638035625e-02 9.996855442310476070e-01 2.159267700940109905e-02
1.678453579653892136e-01 9.857954612744418421e-01 -5.936694381618132232e-03
1.777673453574886708e-01 9.832202935604189564e-01 -4.094661470152036187e-02
1.949543393249877354e-01 9.806347960048636958e-01 -1.866018335538454503e-02
1.843302096962342110e-02 9.996421343837101903e-01 1.938625551038049288e-02
-2.337317361203446464e-01 9.720464834169090240e-01 -2.225105855887445083e-02
-4.464055626505629426e-02 9.989948113702034060e-01 4.072786731236206249e-03
1.942688356272208663e-02 9.997862889200218595e-01 7.069135914026974596e-03
2.121632526879778935e-01 9.728538651920120017e-01 -9.242354240029829193e-02
-3.155699845587842112e-01 9.227212574794075861e-01 2.213618436885394503e-01
-1.409692662750463288e-01 9.899181962857184214e-01 1.377064371425428327e-02
-1.649378329153365977e-03 9.997991425941822330e-01 1.997383335930695905e-02
1.361063172032683918e-03 9.997928880451176781e-01 2.030587406256180102e-02
6.991755317408763874e-04 9.997871223254507500e-01 2.062089197318705755e-02
-4.223772025853805303e-04 9.998149144848690328e-01 1.923430193983863626e-02
3.027192941949297372e-03 9.998799660109506382e-01 1.519505422275668934e-02
5.145618345141480740e-03 9.998559706221233911e-01 1.617283596460081588e-02
8.317886085996513759e-03 9.998344479660592476e-01 1.618299822238733129e-02
-6.932450379769404016e-03 9.995934194491440383e-01 2.765749312030370277e-02
-1.446193314943523822e-02 9.993113417734175163e-01 3.417154799819373256e-02
-2.085402296033615072e-02 9.990122673051663460e-01 3.923773056842948942e-02
-2.627749423863401379e-02 9.986679507442981496e-01 4.440515119580881742e-02
-2.542968137942284296e-02 9.985921911731551193e-01 4.655069315206572522e-02
-5.345108011077682741e-01 8.036836401450963008e-01 2.615163667196740427e-01
-4.553706191995835484e-01 8.807660302520685658e-01 1.299569125664350178e-01
-2.283726428043000162e-02 9.994195151445073311e-01 2.528027113192356581e-02
-2.420461136027525495e-02 9.993840516250370731e-01 2.540972542990558095e-02
-1.064991593226966883e-02 9.996371329003163053e-01 2.474230824864425901e-02
-1.030618206335686717e-02 9.998154636735271383e-01 1.621176148871622882e-02
-1.554630903029323614e-02 9.997537093556868593e-01 1.583770517087202886e-02
-2.188985966627771378e-03 9.994595277947222467e-01 3.280031464465993363e-02
-2.289275024636560490e-02 9.996631017391169882e-01 1.223131258227672276e-02
-1.224784999560951833e-02 9.998042677225688069e-01 1.553758070688532854e-02
1.728184427556225897e-03 9.998444783535871405e-01 1.755085423640103878e-02
1.256194457577703219e-02 9.997212632431704549e-01 1.998983161396146804e-02
1.265508438570507599e-01 9.919581683217060242e-01 -1.968811548763532010e-03
1.321945408552188672e-01 9.904136823229837683e-01 -4.006670981632253631e-02
3.205881563826797065e-02 9.994059605062238782e-01 1.264746790877509415e-02
6.920476273069998963e-02 9.975847709671473718e-01 -5.943530080009953344e-03
1.833470957304157434e-01 9.794614494320430520e-01 -8.389941336924219839e-02
-6.858660841565501765e-02 9.971636981405586075e-01 3.099090603197482072e-02
-2.503437950850260791e-03 9.998045546968189479e-01 1.961084408998875483e-02
1.830025754233667807e-03 9.998048896205850022e-01 1.966808827793798189e-02
3.176122471003047843e-04 9.997282624727007461e-01 2.330880382549217061e-02
-6.366864067838977348e-03 9.995249300574453599e-01 3.015588227196715557e-02
-1.164060013045057837e-02 9.994181031928796033e-01 3.206168178604136554e-02
-2.101384421754881951e-02 9.988534478661563742e-01 4.301404464930093374e-02
-3.527174814802420122e-01 9.318676994085036691e-01 8.492920026314654258e-02
-9.050687768516652021e-02 9.953188792789557926e-01 3.389444855084031843e-02
-1.642289972139674217e-02 9.995245826280542145e-01 2.609400480867396163e-02
-2.032690788190075551e-02 9.996225718049855935e-01 1.848055069382907936e-02
-1.083959216919602384e-02 9.996905430634581702e-01 2.239020658889719073e-02
-1.066163041625882088e-02 9.998091588285318299e-01 1.636995905464917397e-02
-8.330744855793022555e-03 9.998452336978839172e-01 1.549539743832086501e-02
-1.657624503092132787e-02 9.997348227562077305e-01 1.598475114879722297e-02
-2.600869936747042901e-04 9.994479330499373981e-01 3.322290590787702752e-02
-2.434005374234857189e-02 9.995926716336540618e-01 1.490142946543923132e-02
9.065260189250192238e-03 9.997863330642424717e-01 1.857711698990855212e-02
1.158575764270979025e-02 9.997656278238806760e-01 1.828823779827360579e-02
1.198981226317677173e-01 9.927495650537812022e-01 8.528849565211320261e-03
2.013229536907510109e-01 9.791978733592234807e-01 -2.530994124857192246e-02
-3.155029453349933455e-02 9.993764756285051787e-01 1.585051655932055020e-02
-1.222646822075669612e-04 9.998481572981171572e-01 1.742548131062093830e-02
3.864789989654827257e-02 9.992196497916021602e-01 -8.150540100782388900e-03
1.593395188409560681e-01 9.844238246311146634e-01 -7.430108501348448025e-02
3.544363322690117224e-01 9.264543383165725343e-01 -1.267171866089685239e-01
-1.800027054147070593e-01 9.833625493056468159e-01 2.443609351932562318e-02
-5.640958067769796108e-02 9.981486957707179641e-01 2.274071984306845831e-02
-1.679876479151073921e-03 9.998247754335576332e-01 1.864393853913268173e-02
4.118094317175731954e-03 9.997957090139348857e-01 1.978841925263344695e-02
-6.279176522589654521e-04 9.997331346774904759e-01 2.309253445034830168e-02
-8.667673302376416528e-04 9.997405054722249274e-01 2.276335723340363812e-02
7.622213180088458113e-03 9.997771667016550623e-01 1.968549740921780172e-02
1.359942094100302038e-03 9.997017745556746604e-01 2.438262717050417375e-02
-1.358853868522236913e-02 9.993827106227001211e-01 3.239674867675519654e-02
-1.599144150362779779e-02 9.992060022654319917e-01 3.649162692138238628e-02
-1.781908134568777752e-02 9.989205514271718434e-01 4.289769546759678032e-02
-3.473772319339386849e-02 9.978387047178731706e-01 5.577822114675140552e-02
-4.629065246741883577e-01 8.771277054430023368e-01 1.279239530281907622e-01
-1.106894047290642863e-01 9.931401591470473411e-01 3.768925536678700838e-02
-1.208213986481731887e-02 9.996594291950277045e-01 2.313109417555453406e-02
-1.896592531998504694e-02 9.996001167124840547e-01 2.097380139947918262e-02
-1.402583031848199727e-02 9.997182569955453957e-01 1.914896116414487731e-02
-1.029470660230053479e-02 9.998175014983794462e-01 1.609293986537417218e-02
-9.509140530504068753e-03 9.998048830402758158e-01 1.731392778059928639e-02
-3.108468625685326548e-03 9.996528492580495362e-01 2.616330241132800577e-02
-2.503390974892640009e-02 9.995513875340218402e-01 1.644162526924737924e-02
-2.108489837942409406e-02 9.995625777535229739e-01 2.073837542001820758e-02
8.172051847096434285e-03 9.997721022270886770e-01 1.972209869755426129e-02
1.225625086406800270e-02 9.997653574414534505e-01 1.786097350986293880e-02
8.961262020356883934e-03 9.998124877215301964e-01 1.716639679978424621e-02
6.012466968384592297e-02 9.981339779340947516e-01 1.065768215272834378e-02
1.135467896595644122e-01 9.935246943175247702e-01 3.975970230722330676e-03
-1.832721677430144691e-01 9.828619540092043971e-01 -1.984167059460632127e-02
6.144875455623837216e-04 9.996538177933789182e-01 2.630336435093920400e-02
-2.798427107864444666e-02 9.994434872807956838e-01 1.815478736309088931e-02
-8.267942945865020335e-03 9.999119299424471530e-01 1.038140059021799323e-02
1.343080010813078179e-02 9.998686249637473988e-01 9.074492909272835819e-03
1.906093985971171745e-02 9.997783232313589563e-01 8.943431576130879065e-03
1.493563235826109170e-01 9.857920590854455378e-01 -7.685508994181076969e-02
-1.141980568734059648e-01 9.934560058456225473e-01 -1.992048091997753768e-03
-9.457824694782571151e-02 9.951610993724755438e-01 2.663346579102936207e-02
-7.469032290757346426e-02 9.967035155597585572e-01 3.167740101050291190e-02
-2.706749858884989132e-02 9.992910174249147737e-01 2.616893222929184484e-02
-1.985092984177588751e-03 9.997738384308653137e-01 2.117383751373616563e-02
-2.474154222779714491e-03 9.996737431427155096e-01 2.542215238554490497e-02
2.490142126388005406e-03 9.997219476728871346e-01 2.344838018540831848e-02
8.427483822430817395e-03 9.997644422113461937e-01 2.000094013436900034e-02
-8.045416099686928529e-03 9.994863208150398526e-01 3.102202094316364178e-02
-1.214369007374447619e-02 9.992589770021056417e-01 3.652434355464791865e-02
-3.666776905174300161e-02 9.979523298571257861e-01 5.240822497950069214e-02
-5.639506631868803632e-01 8.162186297191946771e-01 1.254862462200457274e-01
-1.353588227149702394e-01 9.899796491216648064e-01 4.022789378233461444e-02
-1.604183032723960345e-02 9.995921638831712919e-01 2.362552820808853232e-02
-1.459162978617398881e-02 9.996680614430961676e-01 2.123325860025490619e-02
-1.448630079583345352e-02 9.997178212732316105e-01 1.882617640296580658e-02
-2.248598886903849237e-02 9.996762570714151641e-01 1.190635764066011806e-02
-1.553924992062073740e-02 9.997542062882168734e-01 1.581324511040440445e-02
-1.310721150345749847e-02 9.997854670583972148e-01 1.603810666588607881e-02
-1.184543891748983911e-02 9.996582831487103027e-01 2.330241423168214615e-02
1.012999433140691387e-02 9.996859044427309771e-01 2.292325616845731009e-02
1.423780113245488865e-03 9.998116585421874536e-01 1.935511026343262123e-02
-2.175432334823478309e-01 9.757760660333608671e-01 -2.315190105591105954e-02
-1.195546486522490286e-02 9.998175077605852001e-01 1.490026963743775433e-02
9.363175035151371020e-03 9.999466453289156398e-01 4.363192490457523665e-03
2.683903679224430849e-02 9.995619324979333475e-01 1.247434186888346508e-02
3.811391220504141142e-01 7.825795688232602965e-01 4.922420015632955059e-01
-1.589526670964358790e-01 8.810857685428346020e-01 4.454457521339857951e-01
-1.177685596537231399e-01 9.929895400240028591e-01 1.011631158113369955e-02
-1.036755990641590602e-01 9.940146621497374380e-01 3.444156776384235674e-02
-7.650674785629997532e-02 9.961634647075489069e-01 4.248610495567411993e-02
-5.642284021400272020e-02 9.976939242402425023e-01 3.772660382661478795e-02
-3.331925294166315776e-02 9.988921811721402921e-01 3.323007337598671285e-02
6.656540242881429231e-03 9.997032719052009186e-01 2.343199978727222854e-02
2.857937819007320794e-03 9.996716143293686851e-01 2.546557864130608723e-02
-2.269356921738170749e-03 9.996506925386244857e-01 2.633140570137176492e-02
-2.791195441571197797e-03 9.996336756182208072e-01 2.692069460493925342e-02
-1.319263150604640077e-03 9.996205209511996870e-01 2.751497116101446483e-02
9.517497220029735513e-03 9.997336390129294426e-01 2.102541967791860325e-02
-3.311577487374241669e-03 9.995530128533242076e-01 2.971208424845206073e-02
-7.150164146557869659e-03 9.993880868767155423e-01 3.423926052904512768e-02
-1.672995293164072916e-02 9.989134116610542957e-01 4.349832960675733412e-02
-2.584162943744552215e-02 9.984453519061320392e-01 4.938713845787889856e-02
-2.797690021978434943e-02 9.982618708177205535e-01 5.187032220448837411e-02
-5.170628879190088956e-01 8.514418082640495822e-01 8.770870582159959183e-02
-3.883792539630063767e-01 9.179650892529349626e-01 8.063280972401784541e-02
-2.537644786403517316e-01 9.657786235457657131e-01 5.362126147748301486e-02
-2.774659495184728097e-02 9.992737013288558456e-01 2.611888782292935696e-02
-1.597059950619838381e-02 9.996422812965194415e-01 2.145342386899639492e-02
-2.124696830302514466e-02 9.996628659820470109e-01 1.492383042285533486e-02
-1.885880563092698706e-02 9.997190389006774813e-01 1.435927260276959744e-02
-1.248697604039427332e-02 9.997924710676108218e-01 1.609627987725617201e-02
-9.012767604634749907e-03 9.998223862593682565e-01 1.655191695023969581e-02
-4.869084458634857608e-03 9.995523531086669689e-01 2.951923798917444053e-02
-6.210254785417212292e-03 9.997564197881926296e-01 2.117861723048550249e-02
-2.143870576251756793e-03 9.995642854795467880e-01 2.943880114263024497e-02
-2.437033385689732143e-02 9.994366738190516575e-01 2.307426820537784862e-02
-1.301929300935174630e-02 9.995309036152254523e-01 2.772130458090751176e-02
-2.961470638786736082e-03 9.996395947825916783e-01 2.668164602402787675e-02
1.126763641400395193e-02 9.997040972280116788e-01 2.155825491935704427e-02
5.602947353633255974e-03 9.998084872819088531e-01 1.875088637940965780e-02
1.083186870759733911e-01 9.939815610495961185e-01 1.636210021804550274e-02
1.215387959168461873e-01 9.925614603364063537e-01 7.075912799335643856e-03
9.981004393872060232e-02 9.948170719363721437e-01 -1.941516193323092679e-02
4.654149303728452036e-01 8.752874571288113970e-01 1.313804018071904611e-01
-1.901120725585428717e-01 6.360998520172350679e-01 7.478197497600254096e-01
2.730771406827545503e-03 9.997505722772128678e-01 2.216610292561650014e-02
-4.663953520845322553e-01 8.788900231475706981e-01 -1.001384180302826443e-01
1.272519061664013039e-03 9.998350085765896900e-01 1.812005297698151066e-02
-3.006484317410322293e-01 9.459730246283634125e-01 -1.214312857838688725e-01
-7.609292608274972197e-04 9.999515050853565734e-01 9.818781196773030545e-03
1.638066596623617005e-02 9.998309038626883583e-01 8.356881213848890017e-03
2.673185222624785418e-02 9.994894787328544306e-01 1.749828502685814302e-02
6.937205710331620367e-02 9.975766416614959553e-01 -5.325570826236991108e-03
-8.352207306884466831e-02 9.963672863822130576e-01 -1.662209185474350370e-02
-3.947449897707279443e-02 9.982437543099841326e-01 4.417206030532420946e-02
-3.868352339739775624e-03 9.995876379635023623e-01 2.845329296797767180e-02
2.064783185416939337e-03 9.996801980900160700e-01 2.520393257218817365e-02
5.013092176129190468e-03 9.996981497744279466e-01 2.405157467649665648e-02
3.867246852334815972e-03 9.996476316479108171e-01 2.626132027347186787e-02
-2.679312236161609899e-03 9.995784729229465482e-01 2.890843743565661358e-02
-2.398697219228411882e-03 9.996007523497667524e-01 2.815283561971376747e-02
-1.401728771081018786e-03 9.996287883011218955e-01 2.720883599280135914e-02
-6.820364674646239899e-04 9.996303424398359505e-01 2.717928070927381340e-02
9.266501902517128644e-03 9.996860776730243092e-01 2.327827418892444364e-02
9.558554958024592305e-03 9.997326807016336803e-01 2.105234343819751414e-02
-6.427699881337702948e-04 9.996576837474054900e-01 2.615534690105551785e-02
-2.472823306062794328e-03 9.995327419772361832e-01 3.046609361839133778e-02
-1.411193756819150054e-02 9.990980890859956220e-01 4.004824094493349834e-02
-2.376232239152652539e-02 9.986131982459851564e-01 4.697906260756903873e-02
-3.023163838907872575e-02 9.982456838419853096e-01 5.090778654743294274e-02
-3.201667534505048263e-02 9.981167689301024826e-01 5.232445012020529168e-02
-4.320490515390065789e-01 8.982579799866660109e-01 8.041280031511829907e-02
-2.812061292183332464e-02 9.993204135650377573e-01 2.383153711161465141e-02
-2.313955320316540484e-02 9.994820622346742844e-01 2.236444384912065694e-02
-1.967000337471060470e-02 9.996355609235600959e-01 1.848881565374571601e-02
-7.972300062070185669e-03 9.997605309830089881e-01 2.037947792001468597e-02
-3.330259505531426960e-03 9.997353811419892322e-01 2.276130630054711695e-02
-1.053868535448640453e-02 9.996544290813283995e-01 2.408232814913586692e-02
-1.466255403862999629e-02 9.995955257899346025e-01 2.436789547352218727e-02
-1.732342422922675609e-02 9.994571455128878901e-01 2.802344119133590855e-02
-1.153930519582110903e-02 9.995460875699162528e-01 2.782917999638097675e-02
-2.135521937165944274e-03 9.995634770615265952e-01 2.946684358269321263e-02
6.215192458884540201e-03 9.996477833705011973e-01 2.580078652178282445e-02
4.876131257577976004e-03 9.997779384191997076e-01 2.050115104606788086e-02
1.069692416266936896e-01 9.942288226040807420e-01 8.162698641600412905e-03
9.413179758682028997e-02 9.955037605298503456e-01 1.055781483073953836e-02
3.599910900452008532e-03 9.998750865187059356e-01 1.538999677449055803e-02
2.440411488336608967e-02 9.996784658879405150e-01 6.885057493802919544e-03
2.775029240364371846e-02 9.995603743385008677e-01 1.043931625098449244e-02
5.450301709540410489e-01 8.365490012707540446e-01 5.592746393957545581e-02
6.447904643389542612e-01 5.850063246713012033e-01 4.919480228562074231e-01
-4.155011851350629559e-01 8.579761017726085237e-01 3.020526012773878111e-01
-3.683503126122205651e-01 9.235842823605274754e-01 -1.063490506542911912e-01
-1.866833304853889319e-01 9.820632024616504641e-01 -2.648019051386452105e-02
-6.981846614987864685e-02 9.971738035308547188e-01 2.774504165227677580e-02
-7.719131384453588318e-02 9.958438262902763460e-01 4.833812890975403009e-02
-4.891653720597133326e-02 9.976249952527120879e-01 4.849269259179995323e-02
2.432340343684735035e-03 9.996427965431171625e-01 2.661509045463708589e-02
5.737863497574752399e-03 9.996365316616607766e-01 2.634163035821770679e-02
4.563563092370684533e-03 9.996568232494428274e-01 2.579553493793385749e-02
-2.246263984639627128e-04 9.996249294162657950e-01 2.738521558262217714e-02
-2.836141391539560245e-03 9.995512087286774205e-01 2.982176103195636682e-02
-2.148409808000929615e-03 9.996475322184329437e-01 2.646121057120801034e-02
6.859174074724695182e-03 9.997558869442096929e-01 2.100281532102650506e-02
4.781521657816739830e-03 9.997738550768805466e-01 2.072138401141684211e-02
2.636056863617362801e-05 9.996889787973833874e-01 2.493882467489125926e-02
-1.877910510170458305e-02 9.988873994938490819e-01 4.325862161459719663e-02
-2.780448445005003627e-02 9.985146547080034907e-01 4.685504218142603344e-02
-3.376404917971279757e-02 9.982155245710251368e-01 4.925195923395316033e-02
-3.546214471813061153e-02 9.981458396526801113e-01 4.947038584887426121e-02
-4.856086031061736946e-02 9.974967977426378862e-01 5.140020757813827668e-02
-4.528024510902634581e-01 8.885907034945830230e-01 7.332463398920870123e-02
-3.251168921604852963e-02 9.991545002607693515e-01 2.516494929403442771e-02
-3.408426226307485762e-02 9.991006699338476071e-01 2.522130852511371771e-02
-2.238138361516992317e-02 9.996195989391178927e-01 1.611617461643502502e-02
-8.432917731849363940e-03 9.997529592651426267e-01 2.056468670118673236e-02
-3.892822896882300408e-03 9.996960408442797652e-01 2.434485264210228816e-02
-7.505362860615222981e-03 9.996355572799714428e-01 2.593110390807766563e-02
-4.991161790660670651e-03 9.997818576138935986e-01 2.028116096508639568e-02
-1.922768461270974935e-02 9.994377992638199260e-01 2.746600712019474019e-02
-1.720523915396377293e-02 9.994791141746599550e-01 2.730348099221126951e-02
-1.280293123901611423e-02 9.995876208377412198e-01 2.570356433713181371e-02
-3.942069595413729907e-03 9.996828657362578641e-01 2.487223433164224839e-02
-6.764527129058026632e-03 9.994567593888555868e-01 3.225565508011438154e-02
2.742925433000403118e-03 9.997285560917136271e-01 2.313634575395246903e-02
6.030725372287164439e-03 9.997286235789256681e-01 2.250132326043936468e-02
5.247821554052145912e-03 9.997434883781936010e-01 2.203219948932025329e-02
7.612819430430009526e-02 9.967038374071308660e-01 2.803495193265213500e-02
9.066420690206464239e-02 9.956759541643025457e-01 2.023353369595651957e-02
9.449287376171133790e-02 9.955066300461180573e-01 6.135661535208890814e-03
-8.467349074104513207e-02 -9.947994915313436159e-01 5.660716928717098723e-02
3.116770863503232625e-01 9.495095279692049584e-01 -3.590334441065846927e-02
1.413116058152767002e-02 9.997728416325915024e-01 1.595542022361514864e-02
-8.670117009428746080e-02 9.961647764577494790e-01 1.177477172447105765e-02
2.199479512488687269e-02 9.996351417677308282e-01 1.567840331230201112e-02
4.135811324484181539e-02 9.991166312935760851e-01 7.447384870084338380e-03
3.314873569022477873e-01 9.406964917108284752e-01 -7.215429784081470177e-02
4.191719859205667031e-01 9.008763617311561500e-01 -1.127680233640846741e-01
-2.847518038099767779e-01 9.585821621270954607e-01 6.053815219124919315e-03
-1.001519726886541950e-01 9.939368368149413824e-01 4.537782265468142534e-02
-8.819060178624894830e-02 9.947863803365336599e-01 5.121010889967625435e-02
-6.246885086830517020e-02 9.963768955316986142e-01 5.771243125885559128e-02
-1.454277610539631005e-02 9.993207462710985700e-01 3.386079938989512705e-02
4.163021933917671752e-03 9.996717093978014779e-01 2.528127129032820344e-02
5.865315164865601491e-03 9.997073587654312643e-01 2.346902018112512547e-02
7.886809529157156728e-04 9.997144258833565722e-01 2.388398340028899738e-02
-2.884569614339513744e-03 9.996467934625671292e-01 2.641907602752018372e-02
-4.218297818543609821e-03 9.996712865889035848e-01 2.528882625192799619e-02
-3.429635112181506160e-03 9.997263887540955851e-01 2.313839302311752888e-02
7.546800760828200130e-03 9.997522096973168182e-01 2.094194364448149007e-02
6.737822544814182565e-03 9.998152193435572155e-01 1.800358065356337176e-02
7.619314592538397983e-03 9.998259857576263787e-01 1.702774937948288783e-02
3.372648363911573844e-03 9.997923533198338486e-01 2.009665360705747278e-02
-1.727405948511065784e-02 9.991326683057091262e-01 3.788823027298237472e-02
-3.001563685302078427e-02 9.986597669611358974e-01 4.216315212881119323e-02
-3.711917898910109537e-02 9.982289719322177124e-01 4.648748375985871373e-02
-4.173282550037779592e-02 9.979441499822370165e-01 4.863995057548635426e-02
-3.778016670939841892e-02 9.981487019396693139e-01 4.766369498437648261e-02
-1.533451802035208644e-02 9.994648385680368063e-01 2.889444623541609358e-02
-1.198933904694393093e-01 9.924537559652829577e-01 2.571219928642715438e-02
-3.855241969275190889e-02 9.989969541650189910e-01 2.277710483904137745e-02
-2.395582407711296588e-02 9.995454858724039937e-01 1.830137057398542599e-02
-1.711633285743571070e-02 9.996864510282498228e-01 1.827650896796310931e-02
-1.171857460172280596e-02 9.996883841838154483e-01 2.204108747897975257e-02
-8.151558431946006461e-03 9.997323224172093292e-01 2.165261206929871077e-02
-1.192242318168794737e-02 9.995925040136514061e-01 2.593610890621964732e-02
-6.537143396329745532e-03 9.997931980072450875e-01 1.925686824645936671e-02
-1.728195417400760214e-02 9.995020272377957982e-01 2.640135616713450498e-02
-1.385993601501787041e-02 9.997184237679535013e-01 1.926072045843580174e-02
-4.543041590414982796e-03 9.997940695576830183e-01 1.977825195497904046e-02
5.824941144557359285e-03 9.996220228890889681e-01 2.686785097078228657e-02
1.910527840527131158e-03 9.997760097181610517e-01 2.107795709745385881e-02
5.897330498918843845e-03 9.997215694515190210e-01 2.284743019199196590e-02
-1.626654187433575205e-01 9.865469047438087946e-01 1.628392721239520918e-02
1.195821556013893991e-02 9.996304062097466359e-01 2.441417747035778962e-02
6.711179597181995971e-02 9.974965094234277130e-01 2.228722794594055825e-02
1.073216230081487227e-01 9.941547933689245387e-01 1.176078468841752073e-02
1.054192525005618747e-01 9.925492387685790341e-01 -6.109656145919402370e-02
1.582807560611677045e-01 9.816281496193454137e-01 -1.065522319597531770e-01
3.033910385162972428e-02 9.994463050846331686e-01 1.366096739453605616e-02
2.129202603477713951e-01 9.723783559506309349e-01 -9.563103895799421328e-02
3.431958470170183295e-01 9.282108639321932086e-01 -1.436704655401468411e-01
-7.962222786271636044e-02 9.959614294180400007e-01 4.148652723176800283e-02
-7.107013328911472583e-02 9.960444211287161620e-01 5.333429752634064047e-02
2.334323771511334546e-04 9.996899266452546895e-01 2.489972034643045742e-02
5.759407804872442374e-03 9.997667890199956053e-01 2.081338017681221356e-02
2.442495422664109697e-03 9.998109309572524861e-01 1.929084120774284677e-02
-8.595788628304388808e-04 9.997420779837646876e-01 2.269446260396027273e-02
-5.164264344731222742e-03 9.997524483033713993e-01 2.164191500751344588e-02
-2.699080615025466288e-03 9.997578157257098752e-01 2.184089877251426531e-02
-1.293254754256073502e-02 9.990759737775612992e-01 4.098716670467850154e-02
3.800417621576610548e-04 9.997854685860853019e-01 2.070923398778583280e-02
6.382826342428413180e-03 9.998184014974446088e-01 1.795615646449245581e-02
7.298767534946428576e-03 9.998535245631764434e-01 1.548087242581615980e-02
5.891259239120001830e-03 9.998368659225241872e-01 1.707438452190130837e-02
-7.864343065535837592e-04 9.996746801103256752e-01 2.549343969337205390e-02
-3.013398002388007965e-02 9.986695340804547794e-01 4.184620589071270241e-02
-3.344469141306082721e-02 9.984875797088714755e-01 4.363491472897892270e-02
-3.677207496483710786e-02 9.981080878002066559e-01 4.927534444928248492e-02
2.203940950953810554e-02 2.479530325766920451e-01 9.685213255599964821e-01
2.203940950936177090e-02 2.479530325767332621e-01 9.685213255599900428e-01
2.203940950954002762e-02 2.479530325766846899e-01 9.685213255599983695e-01
2.387622019928283684e-02 4.896342964217712534e-01 8.716009304013807579e-01
-7.244168659564853563e-02 6.623630532902011758e-01 7.456724399354319743e-01
-3.957263009118511254e-01 8.129397493426064880e-01 4.272348987447107116e-01
-3.022727369871462677e-02 9.994008799664909626e-01 1.685802618774428357e-02
-2.201074373359810168e-02 9.995915239980419642e-01 1.822943530572974924e-02
-1.916115998145249966e-03 9.997513896943519551e-01 2.221457412811779844e-02
-7.602098414850216521e-03 9.997187066486513674e-01 2.246587804736153993e-02
-1.234744380643813637e-02 9.996615397277540671e-01 2.289861612812310945e-02
-5.889019438413191712e-03 9.998213011346614998e-01 1.796344197102583626e-02
-1.905735244249387797e-02 9.995683075952059848e-01 2.236103238086940143e-02
-1.245716625849217427e-02 9.997850576343302320e-01 1.657279517543414418e-02
-3.371353243135357010e-03 9.998359526051527890e-01 1.779611911223163284e-02
7.770410836236211517e-03 9.997394092036508972e-01 2.146472456312982155e-02
4.445504804494535001e-02 9.988393115827420843e-01 1.854126048129723855e-02
8.351562149179149463e-02 9.963639434220781244e-01 1.685328499865328816e-02
9.093932737777497832e-02 9.956426510218345793e-01 2.063371518393460405e-02
9.431897584234195941e-02 9.946570489948474147e-01 -4.196767423760077581e-02
1.447228042227116651e-02 9.996999395315437908e-01 1.976319812193417028e-02
1.564111085062910508e-02 9.997529672976213089e-01 1.579113773480769062e-02
3.656116806293988053e-02 9.992644707047436681e-01 1.156713348423042340e-02
4.315569463727277760e-02 9.990348454701565295e-01 8.183126346014649860e-03
-9.840004458211487615e-02 -9.940839146844384633e-01 4.598479957442468125e-02
-5.830764333071714739e-03 9.995383202302494663e-01 2.981859451052348148e-02
-1.461930350134442724e-01 -9.835772761644590023e-01 1.058458233775019658e-01
-8.087633895400932194e-02 9.951546044219113929e-01 5.591360384794868271e-02
-2.007191328516727546e-02 9.992750539360297779e-01 3.234941851436666516e-02
4.670712823914763279e-03 9.998445395261712498e-01 1.700238869732938196e-02
2.079937295331785955e-03 9.998618559742689094e-01 1.649068914684423751e-02
-6.562811300529020281e-04 9.998258815138557631e-01 1.864875197217683370e-02
-2.777544737774638537e-03 9.998012316985148695e-01 1.974290605160339968e-02
-8.723929125687387640e-03 9.994830850332366845e-01 3.094278256804845056e-02
-2.728310784478647040e-04 9.998333532015946101e-01 1.825353086002661981e-02
1.980469475835878838e-03 9.998317852463348698e-01 1.823400536860341620e-02
5.999041434119920663e-03 9.998718657098394358e-01 1.484128241751677367e-02
4.658951369725384574e-03 9.998545358230671587e-01 1.640735707459744369e-02
-1.709873649497260784e-02 9.993101546188911666e-01 3.296737911698969375e-02
-2.437224647223336371e-02 9.991146939612354227e-01 3.429025973426859386e-02
-2.778439661957261830e-02 9.988758681230307523e-01 3.840608527236158420e-02
-4.380139054738813043e-02 9.972607111030317162e-01 5.960295526558048035e-02
-2.961411322252981843e-02 9.987305539862715298e-01 4.074659289214838109e-02
-3.250483884519222294e-02 9.983984733658948230e-01 4.630252511795650977e-02
-7.953444477598959131e-03 9.996525623556840046e-01 2.512960995831492114e-02
-1.189450174596796556e-01 9.927617170771526611e-01 1.662094845488704814e-02
-6.071577295931166601e-03 9.995194862242291478e-01 3.039625975662958723e-02
-8.000208141381247307e-02 9.966790139737106147e-01 1.518585110718484801e-02
-3.512369470096532442e-02 9.992388004798673506e-01 1.697485452394759814e-02
-2.625029582420573479e-02 9.994912081472469012e-01 1.811758277194938996e-02
-4.257069083299455485e-03 9.997487031362267684e-01 2.200926941660706626e-02
-1.012836642173847203e-02 9.996605005721950210e-01 2.400624479954024601e-02
-3.317470561455953659e-03 9.997572805186533129e-01 2.178013863639807063e-02
-1.493711485458156830e-02 9.997365547757616211e-01 1.742709513692828824e-02
-1.066041767232294574e-02 9.998162876973040181e-01 1.592941776191167044e-02
5.226668385519323348e-03 9.996290129163836191e-01 2.673047836093622384e-02
3.919974790950213860e-03 9.998182395088975882e-01 1.865802087487409763e-02
7.333914229526524928e-03 9.997712797495353909e-01 2.008984544614789841e-02
7.930152685152257186e-03 9.997612635920635205e-01 2.035997296635783799e-02
1.520447018203485365e-02 9.996654325709746214e-01 2.092479412491371482e-02
4.943517586430821315e-02 9.985906657120920960e-01 1.930921386140455054e-02
-7.087152093670073816e-02 -9.974854369820921329e-01 1.747248221876983928e-04
-7.749670080974607744e-02 -9.959360403092024638e-01 4.588752528554356641e-02
8.719513651936418308e-02 9.938729136419468535e-01 -6.792377857743540914e-02
-2.113377361721304436e-03 9.997498087322994609e-01 2.226776988964138462e-02
1.842090585209404940e-02 9.996655846401107937e-01 1.814908024484846588e-02
9.510259130661849469e-03 9.997627338152779153e-01 1.959671006749332672e-02
4.609417564753801738e-02 9.988775920811000519e-01 1.090334855158719626e-02
5.212864037198629980e-02 9.986350922100957206e-01 3.249224446183534773e-03
-4.916119200701604686e-03 9.995116775420795907e-01 3.085835752308980703e-02
1.384535347789470627e-01 9.865110076831908881e-01 -8.733069578968397084e-02
-6.403808972732759341e-03 9.995506468839665537e-01 2.928302485203504099e-02
1.601408516671883886e-01 9.820471780045761934e-01 -9.969076085854516878e-02
1.862082840553067184e-03 9.998529875729360583e-01 1.704511334574037792e-02
1.210083913609865947e-01 -9.909624149108300362e-01 5.788317073486977382e-02
-5.309976529991974198e-02 9.966940467800883274e-01 6.149302430539911601e-02
-8.127164866136354915e-02 9.948177017607040540e-01 6.109549400254461748e-02
-8.306057272013595005e-02 9.944016279154237470e-01 6.531725391164491801e-02
-9.146418691154756253e-02 9.936788962055546071e-01 6.508881431029070463e-02
-5.140866449343744343e-02 9.977733839902802604e-01 4.249027436468241076e-02
-2.077644934885683123e-02 9.993476140139597730e-01 2.954125110857794972e-02
-8.720264202261218331e-03 9.996488584942001543e-01 2.502232410239723856e-02
-2.097799530151580260e-04 9.998171036762943942e-01 1.912368135891246226e-02
2.324581687135588489e-03 9.998330374039802182e-01 1.812439338325176966e-02
2.067980870287914729e-03 9.998454242178281826e-01 1.745998642013738000e-02
1.931955540634529723e-03 9.998574833132712891e-01 1.677142242746596998e-02
-1.808030790220570966e-04 9.998618584900201833e-01 1.662020598937826929e-02
3.748079520030374420e-04 -9.998532075887096582e-01 -1.712958824864015822e-02
1.624103272648394101e-03 -9.998521258824790703e-01 -1.711983226690631452e-02
2.013066619344049991e-03 -9.998379561497744428e-01 -1.788879551640265575e-02
2.021462864050441784e-03 9.998869286690531544e-01 1.490112628821082218e-02
4.727938759989047494e-03 9.998951490026215527e-01 1.368713250125832247e-02
3.209226498510400847e-03 9.999079297569670732e-01 1.318456955752993383e-02
4.492760189867188100e-03 9.999053585842182512e-01 1.300342187434563174e-02
6.968654489492058339e-03 9.998922081643637494e-01 1.292323128318936462e-02
1.997463997242159180e-03 9.998708012845054505e-01 1.594963561529149157e-02
-2.066070013415583981e-02 9.992626588380799646e-01 3.236161494452140241e-02
-2.469030379908819170e-02 9.990240852104709246e-01 3.662329951943584655e-02
-5.625328231067922707e-02 9.967334865771970698e-01 5.794760534258507068e-02
-4.403960267845481724e-02 9.966141235765398898e-01 6.943199610906299057e-02
-4.514794837745704503e-02 9.960633699579661826e-01 7.628516097699490628e-02
-4.636864497374593164e-02 9.954361688039197187e-01 8.340732941578543613e-02
-6.229474216308994450e-01 7.152094829657611452e-01 3.168783762885422628e-01
-7.469640574947721268e-01 6.388800057812322741e-01 1.840571515152825965e-01
-5.902101362993269484e-01 8.072345572749033416e-01 4.936046061451706927e-03
-4.686896326854896877e-01 8.832976433406801720e-01 1.073785276213272757e-02
2.487076684193137866e-03 9.996073792195727670e-01 2.790881329157669441e-02
-6.533303103638884654e-03 9.997758584176462682e-01 2.013824410951876517e-02
-3.135292328416618979e-01 9.493668076591845750e-01 2.005204899075741301e-02
-1.191804092343730880e-02 9.995128132136904542e-01 2.884608330781775198e-02
-9.143264757243198260e-02 9.957249103574867810e-01 1.311388010737025815e-02
-3.652542855732418547e-02 9.992381477735287065e-01 1.374834909476164470e-02
-2.853072767509885407e-02 9.994605299870912285e-01 1.626796165019374352e-02
-1.433529913685282348e-02 9.996337234298255936e-01 2.295469844018472455e-02
-5.856043424572236755e-03 9.996976595761628559e-01 2.388087505415341372e-02
-2.304530870439446162e-03 9.997426609891951754e-01 2.256769673029046172e-02
-9.723254557887577032e-03 9.997107909515114965e-01 2.199528985727941879e-02
-3.095067406327770432e-03 9.997819921242248054e-01 2.064918356416868203e-02
-9.158194577977256043e-03 9.997015169928678002e-01 2.264960031061789142e-02
-5.641962632997894050e-03 9.997686821972994187e-01 2.075452613583873840e-02
9.172778601351305044e-03 -9.997593420812509457e-01 -1.992782110505283630e-02
-9.664898777449602851e-03 9.997446731644341611e-01 2.042494090469564039e-02
7.280308366322015348e-03 9.996819794913858193e-01 2.414408810196638430e-02
4.010272055457811576e-03 9.997532373565954922e-01 2.184907579390923948e-02
3.535734660414668277e-03 9.995821953206327493e-01 2.868681541049049669e-02
6.760311129645812066e-03 9.997242370205621231e-01 2.248884405845082840e-02
8.712222442270021322e-03 9.997040436867160595e-01 2.271392120583867746e-02
5.932734924445392383e-02 9.980794932576501077e-01 1.782107657182623386e-02
7.722199780539822089e-02 9.968801989407812814e-01 1.632887058959019491e-02
-7.671669152401452973e-02 -9.969872625360829410e-01 -1.144323304039610543e-02
4.407889020740324293e-02 -9.987830541651981919e-01 -2.212379150422700072e-02
-1.875008572695647732e-02 9.993201512523848251e-01 3.174381177714659386e-02
-8.485554319141228388e-03 9.994341192857488787e-01 3.254898731783061744e-02
1.691943515749057617e-02 9.997260193249807303e-01 1.617464060125641673e-02
2.287067888316930697e-02 9.996697575352340159e-01 1.171784608490879578e-02
4.502952433726438441e-02 9.989548640995060680e-01 7.843559772026137411e-03
-6.713660662803781765e-02 -9.976743358188352451e-01 1.177266745126888045e-02
4.361517175858889983e-01 2.493814007416219336e-01 8.646274320255081802e-01
-5.557482175541922365e-01 8.014610402881026108e-01 -2.209165443909771320e-01
-8.111479563941008386e-02 9.947279685026541030e-01 6.274279725163124655e-02
-9.361796152925752623e-02 9.934508400904754621e-01 6.550653099222428222e-02
-8.806268038249663588e-02 9.941358065880694372e-01 6.276115345768214226e-02
-7.286750989918597265e-02 9.960657261351301139e-01 5.043208522347671086e-02
-2.964098829065106577e-02 9.990146623806176462e-01 3.303204749472742063e-02
-1.467458708565705372e-02 9.994865371249533892e-01 2.848365495919687185e-02
-5.621756548101146389e-03 9.996420636606571097e-01 2.615607794713976919e-02
-3.245408075411851650e-03 9.996900353118255422e-01 2.468401557009870101e-02
3.429427624108633888e-04 9.997925238892961808e-01 2.036643231723955436e-02
-2.098251856533792873e-03 9.997715187645155321e-01 2.127222617500408239e-02
-7.316319904674342331e-03 9.997889196047028415e-01 1.919863793901493976e-02
-4.132868961590995677e-03 9.998168938875537926e-01 1.868416685834108082e-02
-3.251496650559578417e-03 9.998205432259981151e-01 1.866304135990539542e-02
-2.771884055374120720e-04 9.998600248848261707e-01 1.672883151635620735e-02
1.797926831184325181e-03 9.998947253243491984e-01 1.439811542021453283e-02
6.051756638645620912e-03 9.998988715249736980e-01 1.286945860052918916e-02
6.237736867681175842e-03 9.999086152564699015e-01 1.199382235397110363e-02
4.236626328256778810e-03 9.999034045822299266e-01 1.323754139634743775e-02
-8.357589455145824579e-04 -9.998660048326818428e-01 -1.634851329376352941e-02
-4.531865224697855421e-04 -9.998684606683102549e-01 -1.621283389045472673e-02
2.758212222617047096e-03 -9.998189242738663163e-01 -1.882846061641201690e-02
-1.661988984184464488e-02 9.994525678008843173e-01 2.860671211208695719e-02
-5.077204492042163703e-02 9.969560381369872992e-01 5.916804438884552819e-02
-2.098086358545248400e-02 9.991730816972820284e-01 3.482752036486570085e-02
-5.102150096418767850e-02 9.970178653034728056e-01 5.789803714347886709e-02
-4.357044228658046858e-02 3.480589647301443046e-01 9.364595953002627926e-01
-4.196145941092149778e-01 9.076301269507801583e-01 1.145185844610836431e-02
-1.082884266189564418e-02 9.995893615174621383e-01 2.653006799305512517e-02
-7.273745369954845441e-02 9.973022456996836205e-01 9.873882299988367972e-03
-8.290371619692937788e-02 9.963338469526245023e-01 2.111490604580503957e-02
-1.718222612281150585e-02 9.987189336313146981e-01 4.759477609774367957e-02
-3.389378548171017441e-02 9.992351985640207657e-01 1.949946810664212465e-02
-2.338648299669938632e-02 9.994399774485932531e-01 2.393332176277179063e-02
-2.123132536087922462e-02 9.994440593726606759e-01 2.570608893079539062e-02
-1.675060147924605988e-02 9.994918484490198374e-01 2.711940696337267545e-02
-6.554970881898032273e-03 9.995859948391927485e-01 2.801555421687666747e-02
-6.129680953184208844e-03 9.996327479654499859e-01 2.639689766725138512e-02
-3.964608153727421092e-03 9.996394257956053853e-01 2.655749003990576576e-02
-7.930686351291833455e-03 9.996448509462663168e-01 2.544162319142533046e-02
-1.183355721045307486e-02 9.997121920819826979e-01 2.086863499090268331e-02
-1.953784144642934512e-02 9.996317743395535249e-01 1.883051997078291628e-02
-9.045392341668725619e-03 9.996487913372784639e-01 2.490933269486962642e-02
-7.595637360664047591e-04 9.996515089290182177e-01 2.638718929457959175e-02
7.463193468649528817e-03 9.996451817026094089e-01 2.556973683882087650e-02
5.710539740271781094e-03 9.996585989521228344e-01 2.549657382774343783e-02
9.252378916630259881e-03 9.995938943819506761e-01 2.695254716550483931e-02
9.951601374902561276e-03 9.995842448524117074e-01 2.706109888583606293e-02
2.343471184801327115e-02 9.993706666456614318e-01 2.662864864777872778e-02
6.702868137832031226e-02 9.975474809461326586e-01 2.015388624333518813e-02
7.539060092671141800e-02 9.969695790354139442e-01 1.918113056778939646e-02
-7.872947120766490836e-02 -9.967685188740815772e-01 -1.594334171155386420e-02
-7.875417572554629930e-02 -9.966796867351219724e-01 2.067321589325160289e-02
-8.226337563747727899e-02 -9.919237438272042739e-01 9.654026859580629172e-02
-1.546382397801657205e-02 9.992669046093424212e-01 3.502175752928607388e-02
-9.544691704659855752e-03 9.993957168415251724e-01 3.342304622677452763e-02
4.167367433444832056e-03 9.996418184670676776e-01 2.643610827124404095e-02
4.037066959465894500e-02 9.991555657505418742e-01 7.639664010488865856e-03
4.635358971172161280e-02 9.988652515690861211e-01 1.093407191597235012e-02
-4.945377865779466975e-02 -9.987121083553213152e-01 -1.133350788302889961e-02
-4.497885101103524935e-02 -9.989690173104914805e-01 -6.148610854342674396e-03
-2.710809439251717357e-01 -9.392871426909847887e-01 2.103682138918413214e-01
1.214900015319905491e-01 -9.914305183930521848e-01 4.801777511131295750e-02
-9.811853040464543763e-02 9.927661589730243374e-01 6.919615299408325704e-02
-1.082279402039740129e-01 9.917905435093168354e-01 6.810455759124306452e-02
-1.000638003866399506e-01 9.929287381533495882e-01 6.387297395127160271e-02
-1.018888878425503741e-01 9.927176689791438191e-01 6.426728740831849640e-02
-9.568777037325698620e-02 9.931758528813503517e-01 6.667515170134474811e-02
-7.356432018635701564e-02 9.959432701508987851e-01 5.181981702643156940e-02
-2.422469354758030255e-02 9.990229479610136520e-01 3.696368041485727923e-02
-6.587803656972975735e-03 9.995708241489077439e-01 2.854414744304964793e-02
-5.205066953098646393e-03 9.996181116242903730e-01 2.713923710610720991e-02
-1.773654390735250087e-03 9.996917140924661549e-01 2.476551887139130659e-02
-1.350499839302443748e-03 9.997446387607815677e-01 2.255733626247622553e-02
-3.488128543741214876e-03 9.997519058254359381e-01 2.199908538260117452e-02
-3.492971402364683769e-03 9.997937908732085210e-01 2.000437157625856860e-02
-4.847321160394794915e-04 9.998579995134432297e-01 1.684475715916212979e-02
3.845086669005840473e-03 9.998943731872997898e-01 1.401633963931983584e-02
-7.515173719851235903e-03 -9.998667571478104810e-01 -1.449103566629916795e-02
-4.654434264149506784e-03 -9.998757749132166639e-01 -1.505891707178943877e-02
-7.297803695172733890e-03 9.996142901421338767e-01 2.679576468146334031e-02
-1.007470899314851995e-02 9.995277025498514600e-01 2.903225919764085283e-02
-2.609281636004709415e-02 9.989357249686371398e-01 3.803396266213113219e-02
-3.481017595273409176e-02 9.984993962511089505e-01 4.227537505819124047e-02
-4.125119816856543525e-02 9.975659399999939891e-01 5.621862682053133803e-02
-4.254912530657945641e-02 9.970583164969368806e-01 6.375174852456105823e-02
-7.768181424273435942e-01 6.055141610731880064e-01 1.729340172885732718e-01
-4.340166965312714509e-01 9.008975215458712160e-01 -3.628057963841283332e-03
-3.950037129890673730e-03 9.997710812595702601e-01 2.102813077147824145e-02
-2.869555447353199229e-01 9.579418802944643652e-01 -1.967059623380396083e-03
-1.362663530789246791e-01 9.890788645014702007e-01 5.616476488913910159e-02
-2.095543672189667875e-02 9.992226027283152012e-01 3.339251216434521718e-02
-1.808076374189018787e-02 9.993042185576926917e-01 3.262153821187439157e-02
-8.510156120772017010e-03 9.995138366525839757e-01 2.999445920218735476e-02
-1.723846685573335660e-02 9.995835950167163420e-01 2.314026434423258755e-02
-6.841835362074571818e-03 9.995952641740857292e-01 2.761335056848607597e-02
1.068499254719866912e-02 9.994882659398259817e-01 3.015024349596182734e-02
1.776512857318118810e-02 9.993416112303123988e-01 3.163454236086614413e-02
6.082848148227013724e-02 9.978862017256308059e-01 2.286972335107485474e-02
7.429920912040179071e-02 9.970244544838688938e-01 2.053934481005262325e-02
8.426901373530425177e-02 9.962793310573105909e-01 1.806177820915923216e-02
-6.170638266513853859e-02 -9.979054152165279801e-01 -1.941918175187585735e-02
-6.864459586248419787e-02 -9.976180904730341803e-01 -6.787121614733899327e-03
-6.188399871851624212e-02 -9.980401903486164628e-01 -9.281656721954847575e-03
-2.357107291885920594e-02 9.987955741165898127e-01 4.303261143093369684e-02
-2.121753270866913454e-02 9.987641358536712977e-01 4.494460188082482349e-02
-4.906825577346021761e-03 9.996016842868294949e-01 2.779201024912135790e-02
1.027969037939757777e-03 9.996207703751990303e-01 2.751833414563685520e-02
2.519130082922033109e-02 9.995450248955078942e-01 1.658739187366376627e-02
5.319246544454758752e-02 9.985606404384371748e-01 6.870879645939402536e-03
-9.863531110170691008e-02 9.929057884656720123e-01 6.640158608972906995e-02
-9.649393503472615541e-02 9.932117881139685966e-01 6.495586542389446272e-02
